-196.651 1.37633e-08 1.20192e+09 
-180.706 1.44509e-08 1.34841e+09 
-196.427 1.37893e-08 1.20672e+09 
-180.517 1.32939e-08 1.12142e+09 
-189.738 1.48334e-08 1.4611e+09 
-179.113 1.33166e-08 1.12507e+09 
-193.587 1.36407e-08 1.17979e+09 
-185.559 1.4851e-08 1.46737e+09 
-179.113 1.34333e-08 1.14419e+09 
-190.156 1.48425e-08 1.46432e+09 
-180.234 1.33392e-08 1.12872e+09 
-186.36 1.36549e-08 1.18231e+09 
-194.547 1.15596e-08 8.87306e+08 
-193.565 1.40658e-08 1.26085e+09 
-209.28 1.36673e-08 1.18451e+09 
-181.389 1.28378e-08 1.05212e+09 
-190.786 1.49219e-08 1.49433e+09 
-184.094 1.14188e-08 8.71048e+08 
-196.539 1.34349e-08 1.14447e+09 
-190.891 1.47191e-08 1.42323e+09 
-180.234 1.33392e-08 1.12872e+09 
-190.575 1.40815e-08 1.26411e+09 
-196.651 1.34091e-08 1.14018e+09 
-190.051 1.48233e-08 1.45755e+09 
-189.842 1.49476e-08 1.50482e+09 
-189.738 1.50225e-08 1.53855e+09 
-183.1 1.3655e-08 1.18232e+09 
-197.438 1.17966e-08 9.15375e+08 
-179.206 1.33549e-08 1.13128e+09 
-183.489 1.36884e-08 1.18828e+09 
-189.53 1.50589e-08 1.55709e+09 
-198.345 1.18314e-08 9.19581e+08 
-213.022 1.37182e-08 1.19366e+09 
-183.88 1.37088e-08 1.19197e+09 
-189.53 1.41611e-08 1.28097e+09 
-183.939 1.19144e-08 9.29692e+08 
-184.272 1.38414e-08 1.2165e+09 
-184.174 1.17851e-08 9.13997e+08 
-184.371 1.37454e-08 1.19863e+09 
-184.272 1.14344e-08 8.72827e+08 
-194.547 1.35111e-08 1.15729e+09 
-189.115 1.48025e-08 1.45036e+09 
-184.469 1.39735e-08 1.24213e+09 
-195.87 1.34189e-08 1.1418e+09 
-184.864 1.39517e-08 1.23782e+09 
-184.568 1.14365e-08 8.73068e+08 
-184.864 1.39517e-08 1.23782e+09 
-184.864 1.14284e-08 8.72149e+08 
-189.011 1.38872e-08 1.22524e+09 
-185.161 1.14305e-08 8.72389e+08 
-188.701 1.41014e-08 1.26826e+09 
-188.085 1.36434e-08 1.18026e+09 
-191.526 1.48715e-08 1.47488e+09 
-187.066 1.22672e-08 9.7417e+08 
-186.965 1.20699e-08 9.48987e+08 
-186.864 1.3712e-08 1.19255e+09 
-213.285 1.46374e-08 1.39871e+09 
-186.662 1.36854e-08 1.18774e+09 
-186.36 1.39372e-08 1.23497e+09 
-189.842 1.41376e-08 1.27593e+09 
-186.803 1.15645e-08 8.87871e+08 
-189.738 1.50532e-08 1.55403e+09 
-196.539 1.34349e-08 1.14447e+09 
-206.65 1.34767e-08 1.15146e+09 
-207.519 1.35434e-08 1.16282e+09 
-207.994 1.44722e-08 1.35382e+09 
-185.659 1.39844e-08 1.24431e+09 
-168.786 1.37591e-08 1.20115e+09 
-214.185 1.4031e-08 1.25371e+09 
-206.65 1.34767e-08 1.15146e+09 
-187.473 1.50668e-08 1.56138e+09 
-180.328 1.35723e-08 1.16781e+09 
-208.396 1.3602e-08 1.17296e+09 
-180.706 1.36891e-08 1.18841e+09 
-193.587 1.36407e-08 1.17979e+09 
-194.109 1.39873e-08 1.24489e+09 
-188.496 1.48059e-08 1.45153e+09 
-180.99 1.3712e-08 1.19255e+09 
-196.427 1.37893e-08 1.20672e+09 
-184.568 1.38456e-08 1.21729e+09 
-210.171 1.37319e-08 1.19616e+09 
-189.115 1.50827e-08 1.5703e+09 
-206.65 1.34767e-08 1.15146e+09 
-183.88 1.37845e-08 1.20583e+09 
-208.9 1.36479e-08 1.18105e+09 
-196.629 1.48925e-08 1.48281e+09 
-190.26 1.37782e-08 1.20467e+09 
-193.025 1.3735e-08 1.19672e+09 
-191.103 1.5078e-08 1.56761e+09 
-187.574 1.50204e-08 1.53749e+09 
-186.059 1.39627e-08 1.23998e+09 
-210.171 1.37319e-08 1.19616e+09 
-184.094 1.17768e-08 9.12998e+08 
-194.634 1.15568e-08 8.86973e+08 
-189.759 1.48373e-08 1.46245e+09 
-214.185 1.4031e-08 1.25371e+09 
-195.56 1.35748e-08 1.16824e+09 
-198.39 1.1827e-08 9.19045e+08 
-195.826 1.34188e-08 1.14179e+09 
-212.917 1.37075e-08 1.19174e+09 
-191.526 1.48708e-08 1.47463e+09 
-188.393 1.50717e-08 1.56407e+09 
-198.939 1.49066e-08 1.48824e+09 
-196.494 1.34423e-08 1.14569e+09 
-179.113 1.34333e-08 1.14419e+09 
-179.198 1.3338e-08 1.12853e+09 
-187.168 1.20687e-08 9.4884e+08 
-193.587 1.40688e-08 1.26148e+09 
-196.629 1.34113e-08 1.14054e+09 
-188.64 1.40983e-08 1.26761e+09 
-186.803 1.15645e-08 8.87871e+08 
-187.046 1.22628e-08 9.73594e+08 
-193.587 1.36407e-08 1.17979e+09 
-186.925 1.20701e-08 9.49016e+08 
-186.876 1.37096e-08 1.19211e+09 
-186.803 1.22747e-08 9.75145e+08 
-186.561 1.36844e-08 1.18757e+09 
-194.634 1.15568e-08 8.86973e+08 
-186.32 1.39383e-08 1.23517e+09 
-196.629 1.48925e-08 1.48281e+09 
-180.253 1.33455e-08 1.12974e+09 
-186.32 1.36522e-08 1.18182e+09 
-180.14 1.273e-08 1.03673e+09 
-194.503 1.35211e-08 1.15899e+09 
-180.479 1.32953e-08 1.12164e+09 
-186.079 1.39586e-08 1.23918e+09 
-180.706 1.44536e-08 1.34909e+09 
-180.819 1.33203e-08 1.12566e+09 
-185.863 1.48434e-08 1.46463e+09 
-190.009 1.48224e-08 1.45722e+09 
-197.438 1.18027e-08 9.16119e+08 
-181.389 1.28378e-08 1.05212e+09 
-185.559 1.4851e-08 1.46737e+09 
-190.26 1.37743e-08 1.20395e+09 
-181.389 1.10577e-08 8.30688e+08 
-181.389 1.10577e-08 8.30688e+08 
-185.122 1.1435e-08 8.72899e+08 
-184.884 1.14374e-08 8.73171e+08 
-184.765 1.39495e-08 1.23739e+09 
-184.528 1.14348e-08 8.72881e+08 
-184.41 1.39726e-08 1.24196e+09 
-184.528 1.38405e-08 1.21634e+09 
-184.292 1.14372e-08 8.73152e+08 
-184.292 1.3738e-08 1.19728e+09 
-189.884 1.41378e-08 1.27597e+09 
-184.174 1.1787e-08 9.14228e+08 
-189.135 1.48029e-08 1.45052e+09 
-183.939 1.19144e-08 9.29692e+08 
-183.003 1.36579e-08 1.18284e+09 
-183.47 1.36826e-08 1.18724e+09 
-183.939 1.37148e-08 1.19304e+09 
-189.509 1.41593e-08 1.28059e+09 
-188.146 1.36456e-08 1.18065e+09 
-181.355 1.10707e-08 8.32107e+08 
-187.574 1.50204e-08 1.53749e+09 
-187.534 1.5069e-08 1.56259e+09 
-209.204 1.36708e-08 1.18513e+09 
-208.9 1.45543e-08 1.37546e+09 
-208.295 1.36062e-08 1.17371e+09 
-190.135 1.48454e-08 1.46535e+09 
-180.706 1.36891e-08 1.18841e+09 
-194.109 1.15488e-08 8.86042e+08 
-185.36 1.40046e-08 1.24836e+09 
-188.496 1.48059e-08 1.45153e+09 
-168.736 1.37595e-08 1.20122e+09 
-194.109 1.39873e-08 1.24489e+09 
-183.88 1.37845e-08 1.20583e+09 
-190.891 1.4716e-08 1.42228e+09 
-181.355 1.10707e-08 8.32107e+08 
-189.011 1.38835e-08 1.22453e+09 
-192.268 1.28775e-08 1.05787e+09 
-208.295 1.36062e-08 1.17371e+09 
-187.066 1.39963e-08 1.2467e+09 
-208.839 1.45552e-08 1.37569e+09 
-186.561 1.36844e-08 1.18757e+09 
-186.847 1.20858e-08 9.50987e+08 
-186.296 1.39403e-08 1.23557e+09 
-187.022 1.22596e-08 9.73186e+08 
-187.168 1.20665e-08 9.48558e+08 
-186.673 1.15596e-08 8.87305e+08 
-186.296 1.36513e-08 1.18166e+09 
-186.586 1.3718e-08 1.19363e+09 
-186.151 1.3961e-08 1.23966e+09 
-185.719 1.39887e-08 1.24518e+09 
-187.46 1.50679e-08 1.56198e+09 
-185.432 1.40042e-08 1.24828e+09 
-185.145 1.1436e-08 8.73012e+08 
-184.718 1.39465e-08 1.23679e+09 
-198.308 1.18263e-08 9.18964e+08 
-184.434 1.39706e-08 1.24156e+09 
-184.765 1.39495e-08 1.23739e+09 
-184.292 1.3738e-08 1.19728e+09 
-184.292 1.38367e-08 1.21561e+09 
-184.151 1.17791e-08 9.13279e+08 
-197.492 1.18098e-08 9.16965e+08 
-183.868 1.19047e-08 9.28504e+08 
-183.88 1.37845e-08 1.20583e+09 
-188.343 1.50689e-08 1.56253e+09 
-184.009 1.37188e-08 1.19378e+09 
-188.64 1.48134e-08 1.45411e+09 
-188.64 1.4101e-08 1.26818e+09 
-183.446 1.36802e-08 1.18681e+09 
-186.673 1.15596e-08 8.87305e+08 
-189.834 1.50504e-08 1.55258e+09 
-214.057 1.40194e-08 1.25135e+09 
-183.027 1.36557e-08 1.18244e+09 
-189.135 1.48029e-08 1.45052e+09 
-196.521 1.34075e-08 1.13992e+09 
-189.384 1.41488e-08 1.27832e+09 
-186.296 1.36513e-08 1.18166e+09 
-189.534 1.50587e-08 1.55698e+09 
-189.834 1.41308e-08 1.27449e+09 
-181.389 1.10577e-08 8.30688e+08 
-195.879 1.34171e-08 1.14151e+09 
-189.984 1.48186e-08 1.45589e+09 
-181.256 1.28256e-08 1.05037e+09 
-185.46 1.48448e-08 1.46515e+09 
-198.966 1.49079e-08 1.48875e+09 
-212.691 1.37037e-08 1.19104e+09 
-180.547 1.44018e-08 1.3362e+09 
-180.683 1.44518e-08 1.34865e+09 
-181.256 1.10702e-08 8.32048e+08 
-180.411 1.32943e-08 1.12149e+09 
-190.891 1.47188e-08 1.42314e+09 
-195.56 1.35731e-08 1.16794e+09 
-180.276 1.33517e-08 1.13075e+09 
-189.834 1.48397e-08 1.46332e+09 
-191.526 1.48708e-08 1.47463e+09 
-192.268 1.28775e-08 1.05787e+09 
-192.577 1.50966e-08 1.5785e+09 
-178.664 1.3921e-08 1.23179e+09 
-179.198 1.3318e-08 1.12529e+09 
-193.509 1.40565e-08 1.25893e+09 
-196.682 1.48913e-08 1.48233e+09 
-180.14 1.273e-08 1.03673e+09 
-194.608 1.35196e-08 1.15873e+09 
-189.684 1.50242e-08 1.53935e+09 
-208.295 1.3599e-08 1.17245e+09 
-209.021 1.36544e-08 1.18221e+09 
-187.46 1.50149e-08 1.53486e+09 
-189.235 1.5085e-08 1.57164e+09 
-183.082 1.3654e-08 1.18214e+09 
-186.847 1.20858e-08 9.50987e+08 
-198.144 1.182e-08 9.18204e+08 
-184.264 1.37407e-08 1.19776e+09 
-181.366 1.10568e-08 8.30583e+08 
-186.325 1.3658e-08 1.18286e+09 
-186.673 1.37155e-08 1.19317e+09 
-186.847 1.22448e-08 9.71262e+08 
-196.586 1.34162e-08 1.14136e+09 
-183.418 1.36773e-08 1.1863e+09 
-182.248 1.16333e-08 8.95928e+08 
-196.2 1.48731e-08 1.4755e+09 
-189.504 1.50582e-08 1.55674e+09 
-184.009 1.37188e-08 1.19378e+09 
-195.815 1.34149e-08 1.14114e+09 
-187.754 1.50303e-08 1.54235e+09 
-194.482 1.15596e-08 8.87297e+08 
-180.819 1.11382e-08 8.39523e+08 
-186.638 1.15652e-08 8.8795e+08 
-179.145 1.33199e-08 1.1256e+09 
-198.966 1.49079e-08 1.48875e+09 
-180.113 1.27104e-08 1.03397e+09 
-184.718 1.39465e-08 1.23679e+09 
-193.54 1.40524e-08 1.25808e+09 
-188.61 1.48108e-08 1.4532e+09 
-188.432 1.50684e-08 1.56224e+09 
-180.276 1.33497e-08 1.13043e+09 
-181.158 1.28271e-08 1.05058e+09 
-186.151 1.39542e-08 1.23831e+09 
-184.292 1.38367e-08 1.21561e+09 
-180.178 1.33575e-08 1.1317e+09 
-184.094 1.14188e-08 8.71048e+08 
-197.362 1.18077e-08 9.16719e+08 
-184.094 1.17768e-08 9.12998e+08 
-213.828 1.40166e-08 1.25078e+09 
-183.756 1.18946e-08 9.27271e+08 
-183.925 1.37936e-08 1.20753e+09 
-186.151 1.39542e-08 1.23831e+09 
-191.501 1.48731e-08 1.47548e+09 
-212.691 1.37037e-08 1.19104e+09 
-185.598 1.40024e-08 1.24793e+09 
-195.432 1.35646e-08 1.16647e+09 
-192.053 1.2855e-08 1.0546e+09 
-185.46 1.37502e-08 1.19951e+09 
-189.984 1.48186e-08 1.45589e+09 
-187.724 1.50298e-08 1.54211e+09 
-192.423 1.50968e-08 1.57863e+09 
-185.46 1.48448e-08 1.46515e+09 
-178.664 1.3921e-08 1.23179e+09 
-186.673 1.22846e-08 9.76432e+08 
-212.014 1.46301e-08 1.39661e+09 
-208.694 1.45516e-08 1.37473e+09 
-189.145 1.41412e-08 1.27671e+09 
-180.765 1.44555e-08 1.34958e+09 
-185.117 1.1426e-08 8.71872e+08 
-185.805 1.48355e-08 1.46182e+09 
-191.135 1.50442e-08 1.54939e+09 
-187.197 1.50293e-08 1.54184e+09 
-179.145 1.33199e-08 1.1256e+09 
-198.184 1.18108e-08 9.17096e+08 
-181.158 1.28271e-08 1.05058e+09 
-191.574 1.48791e-08 1.47771e+09 
-182.948 1.36558e-08 1.18246e+09 
-183.756 1.18913e-08 9.26872e+08 
-188.539 1.50685e-08 1.56231e+09 
-180.178 1.33575e-08 1.1317e+09 
-185.392 1.37565e-08 1.20067e+09 
-184.366 1.37465e-08 1.19883e+09 
-193.353 1.46786e-08 1.41086e+09 
-185.598 1.40024e-08 1.24793e+09 
-186.847 1.20954e-08 9.52204e+08 
-186.638 1.37209e-08 1.19416e+09 
-186.638 1.15652e-08 8.8795e+08 
-186.847 1.22479e-08 9.71667e+08 
-180.178 1.27047e-08 1.03317e+09 
-181.355 1.10707e-08 8.32107e+08 
-212.6 1.3706e-08 1.19146e+09 
-182.348 1.16341e-08 8.96023e+08 
-199.131 1.49094e-08 1.48934e+09 
-187.689 1.20907e-08 9.51609e+08 
-197.479 1.18264e-08 9.18976e+08 
-189.181 1.45635e-08 1.37795e+09 
-186.221 1.39627e-08 1.23999e+09 
-193.578 1.40556e-08 1.25875e+09 
-192.016 1.28822e-08 1.05856e+09 
-188.539 1.48139e-08 1.45429e+09 
-192.46 1.50945e-08 1.57726e+09 
-195.624 1.34056e-08 1.13959e+09 
-208.607 1.45445e-08 1.3728e+09 
-180.765 1.11317e-08 8.38812e+08 
-184.094 1.39658e-08 1.24061e+09 
-192.46 1.50945e-08 1.57726e+09 
-196.2 1.48731e-08 1.4755e+09 
-194.709 1.15511e-08 8.86306e+08 
-187.689 1.50317e-08 1.54305e+09 
-212.014 1.46301e-08 1.39661e+09 
-185.46 1.48448e-08 1.46515e+09 
-186.151 1.3961e-08 1.23966e+09 
-184.162 1.38297e-08 1.21429e+09 
-186.596 1.1781e-08 9.13505e+08 
-197.012 1.49016e-08 1.48631e+09 
-211.789 1.45808e-08 1.38272e+09 
-185.185 1.14429e-08 8.73803e+08 
-185.805 1.48355e-08 1.46182e+09 
-186.345 1.36918e-08 1.18889e+09 
-192.016 1.28719e-08 1.05706e+09 
-187.049 1.20982e-08 9.52548e+08 
-186.847 1.22592e-08 9.73127e+08 
-192.282 1.50913e-08 1.5753e+09 
-184.366 1.37334e-08 1.19643e+09 
-183.877 1.17659e-08 9.11683e+08 
-181.237 1.28336e-08 1.05151e+09 
-191.486 1.48746e-08 1.47603e+09 
-189.396 1.4571e-08 1.38001e+09 
-198.325 1.17949e-08 9.15169e+08 
-180.295 1.33678e-08 1.13338e+09 
-180.342 1.2706e-08 1.03335e+09 
-186.596 1.15593e-08 8.87264e+08 
-197.479 1.18136e-08 9.17433e+08 
-181.355 1.10707e-08 8.32107e+08 
-212.014 1.46301e-08 1.39661e+09 
-182.427 1.16334e-08 8.95941e+08 
-188.624 1.50698e-08 1.56302e+09 
-182.668 1.36563e-08 1.18255e+09 
-183.634 1.1898e-08 9.27693e+08 
-186.345 1.39546e-08 1.23839e+09 
-188.113 1.50728e-08 1.56466e+09 
-193.623 1.46885e-08 1.41384e+09 
-188.113 1.21271e-08 9.56208e+08 
-185.35 1.37682e-08 1.20282e+09 
-182.045 1.36012e-08 1.17283e+09 
-186.747 1.17726e-08 9.12492e+08 
-185.185 1.14429e-08 8.73803e+08 
-187.605 1.50313e-08 1.54284e+09 
-193.623 1.40447e-08 1.25652e+09 
-211.789 1.45808e-08 1.38272e+09 
-197.479 1.49067e-08 1.48829e+09 
-194.709 1.15511e-08 8.86306e+08 
-185.598 1.40024e-08 1.24793e+09 
-208.45 1.45427e-08 1.37231e+09 
-188.624 1.48215e-08 1.45691e+09 
-176.177 1.30632e-08 1.08546e+09 
-194.709 1.47716e-08 1.44003e+09 
-191.222 1.50487e-08 1.55168e+09 
-185.805 1.48366e-08 1.46223e+09 
-180.342 1.2706e-08 1.03335e+09 
-191.698 1.48837e-08 1.47946e+09 
-192.016 1.28719e-08 1.05706e+09 
-192.335 1.5096e-08 1.57814e+09 
-187.049 1.21093e-08 9.53951e+08 
-183.198 1.14193e-08 8.711e+08 
-193.623 1.46905e-08 1.41445e+09 
-186.446 1.39609e-08 1.23964e+09 
-182.045 1.36012e-08 1.17283e+09 
-199.637 1.49163e-08 1.49208e+09 
-184.366 1.37428e-08 1.19815e+09 
-180.342 1.33764e-08 1.1348e+09 
-183.198 1.14193e-08 8.711e+08 
-189.5 1.45738e-08 1.38076e+09 
-198.269 1.17772e-08 9.13049e+08 
-182.908 1.36715e-08 1.18525e+09 
-175.953 1.30541e-08 1.08408e+09 
-186.747 1.22506e-08 9.7202e+08 
-186.446 1.15532e-08 8.86549e+08 
-185.251 1.37741e-08 1.20391e+09 
-182.619 1.16317e-08 8.95742e+08 
-188.881 1.50715e-08 1.56396e+09 
-194.6 1.4771e-08 1.43983e+09 
-208.45 1.45427e-08 1.37231e+09 
-208.45 1.45427e-08 1.37231e+09 
-198.269 1.17772e-08 9.13049e+08 
-200.676 1.49447e-08 1.50361e+09 
-186.747 1.17726e-08 9.12492e+08 
-175.953 1.30541e-08 1.08408e+09 
-185.251 1.14801e-08 8.78089e+08 
-193.623 1.40447e-08 1.25652e+09 
-189.396 1.50543e-08 1.55462e+09 
-191.381 1.50568e-08 1.55596e+09 
-186.446 1.39609e-08 1.23964e+09 
-194.6 1.24067e-08 9.92478e+08 
-189.624 1.45745e-08 1.38096e+09 
-193.429 1.40439e-08 1.25634e+09 
-184.19 1.37328e-08 1.19632e+09 
-187.049 1.21093e-08 9.53951e+08 
-186.686 1.39725e-08 1.24194e+09 
-186.686 1.17526e-08 9.10097e+08 
-175.793 1.30432e-08 1.08243e+09 
-187.049 1.21093e-08 9.53951e+08 
-186.325 1.15602e-08 8.87375e+08 
-186.686 1.2259e-08 9.73106e+08 
-200.676 1.49411e-08 1.50211e+09 
-186.325 1.36937e-08 1.18923e+09 
-191.507 1.5045e-08 1.54981e+09 
-186.325 1.15602e-08 8.87375e+08 
-198.951 1.48838e-08 1.47949e+09 
-191.889 1.28671e-08 1.05636e+09 
-185.251 1.37928e-08 1.20739e+09 
-192.271 1.50951e-08 1.57762e+09 
-183.838 1.18091e-08 9.1689e+08 
-183.838 1.18091e-08 9.1689e+08 
-193.429 1.46858e-08 1.41303e+09 
-183.14 1.14289e-08 8.72198e+08 
-183.14 1.36951e-08 1.1895e+09 
-182.447 1.16477e-08 8.97631e+08 
-194.6 1.24067e-08 9.92478e+08 
-181.759 1.35984e-08 1.17235e+09 
-181.237 1.1083e-08 8.33452e+08 
-180.736 1.28079e-08 1.04782e+09 
-180.736 1.28079e-08 1.04782e+09 
-180.398 1.34033e-08 1.13921e+09 
-193.429 1.40439e-08 1.25634e+09 
